2628516.500000 1169648.500002 -47.852249
2628541.500000 1169648.500002 -46.795502
2628566.500000 1169648.500002 -44.978752
2628591.500000 1169648.500002 -43.673752
2628616.500000 1169648.500002 -42.562256
2628641.500000 1169648.500002 -40.998505
2628666.500000 1169648.500002 -39.650497
2628691.500000 1169648.500002 -38.727249
2628716.500000 1169648.500002 -38.165009
2628741.500000 1169648.500002 -37.126007
2628766.500000 1169648.500002 -35.235489
2628791.500000 1169648.500002 -31.836990
2628816.500000 1169648.500002 -26.688751
2628841.500000 1169648.500002 -21.013245
2628866.500000 1169648.500002 -14.920258
2628891.500000 1169648.500002 -8.417633
2628916.500000 1169648.500002 -3.979696
2628941.500000 1169648.500002 -1.519806
2628966.500000 1169648.500002 -1.346008
2620316.500000 1169673.500002 -3.579224
2620341.500000 1169673.500002 -5.202133
2620366.500000 1169673.500002 -7.701279
2620391.500000 1169673.500002 -9.454269
2620416.500000 1169673.500002 -11.541763
2620441.500000 1169673.500002 -13.980255
2620466.500000 1169673.500002 -15.856003
2620491.500000 1169673.500002 -16.614502
2620516.500000 1169673.500002 -16.334991
2620541.500000 1169673.500002 -16.356735
2620566.500000 1169673.500002 -17.394989
2620591.500000 1169673.500002 -17.983994
2620616.500000 1169673.500002 -16.963501
2620641.500000 1169673.500002 -15.443253
2620666.500000 1169673.500002 -16.511749
2620691.500000 1169673.500002 -19.593246
2620716.500000 1169673.500002 -21.733749
2620741.500000 1169673.500002 -23.281250
2620766.500000 1169673.500002 -27.095505
2620791.500000 1169673.500002 -34.953003
2620816.500000 1169673.500002 -44.835243
2620841.500000 1169673.500002 -55.838989
2620866.500000 1169673.500002 -67.275742
2620891.500000 1169673.500002 -79.402496
2620916.500000 1169673.500002 -92.410995
2620941.500000 1169673.500002 -107.761742
2620966.500000 1169673.500002 -121.390495
2620991.500000 1169673.500002 -130.274750
2621016.500000 1169673.500002 -138.618500
2621041.500000 1169673.500002 -146.356499
2621066.500000 1169673.500002 -152.097000
2621091.500000 1169673.500002 -155.379250
2621116.500000 1169673.500002 -157.721001
2621141.500000 1169673.500002 -159.907997
2621166.500000 1169673.500002 -162.181740
2621191.500000 1169673.500002 -164.468994
2621216.500000 1169673.500002 -166.710999
2621241.500000 1169673.500002 -168.987251
2621266.500000 1169673.500002 -171.652008
2621291.500000 1169673.500002 -175.248505
2621316.500000 1169673.500002 -179.213753
2621341.500000 1169673.500002 -182.990509
2621366.500000 1169673.500002 -188.931755
2621391.500000 1169673.500002 -196.409500
2621416.500000 1169673.500002 -201.461502
2621441.500000 1169673.500002 -203.889252
2621466.500000 1169673.500002 -205.356995
2621491.500000 1169673.500002 -206.331497
2621516.500000 1169673.500002 -207.193748
2621541.500000 1169673.500002 -208.119751
2621566.500000 1169673.500002 -208.821503
2621591.500000 1169673.500002 -209.725998
2621616.500000 1169673.500002 -210.515251
2621641.500000 1169673.500002 -210.813751
2621666.500000 1169673.500002 -211.121002
2621691.500000 1169673.500002 -211.472000
2621716.500000 1169673.500002 -211.709991
2621741.500000 1169673.500002 -211.889748
2621766.500000 1169673.500002 -211.995758
2621791.500000 1169673.500002 -212.083755
2621816.500000 1169673.500002 -212.191002
2621841.500000 1169673.500002 -212.248253
2621866.500000 1169673.500002 -212.301254
2621891.500000 1169673.500002 -212.347748
2621916.500000 1169673.500002 -212.356750
2621941.500000 1169673.500002 -212.380753
2621966.500000 1169673.500002 -212.445000
2621991.500000 1169673.500002 -212.464500
2622016.500000 1169673.500002 -212.468002
2622041.500000 1169673.500002 -212.492004
2622066.500000 1169673.500002 -212.503754
2622091.500000 1169673.500002 -212.519753
2622116.500000 1169673.500002 -212.512245
2622141.500000 1169673.500002 -212.537239
2622166.500000 1169673.500002 -212.616745
2622191.500000 1169673.500002 -212.660500
2622216.500000 1169673.500002 -212.664749
2622241.500000 1169673.500002 -212.666748
2622266.500000 1169673.500002 -212.720749
2622291.500000 1169673.500002 -212.794250
2622316.500000 1169673.500002 -212.804245
2622341.500000 1169673.500002 -212.846245
2622366.500000 1169673.500002 -212.924004
2622391.500000 1169673.500002 -212.979759
2622416.500000 1169673.500002 -213.057510
2622441.500000 1169673.500002 -213.152008
2622466.500000 1169673.500002 -213.202255
2622491.500000 1169673.500002 -213.217506
2622516.500000 1169673.500002 -213.232758
2622541.500000 1169673.500002 -213.268753
2622566.500000 1169673.500002 -213.240997
2622591.500000 1169673.500002 -213.161751
2622616.500000 1169673.500002 -213.191254
2622641.500000 1169673.500002 -213.203499
2622666.500000 1169673.500002 -213.188492
2622691.500000 1169673.500002 -213.191742
2622716.500000 1169673.500002 -213.173492
2622741.500000 1169673.500002 -213.196243
2622766.500000 1169673.500002 -213.232254
2622791.500000 1169673.500002 -213.252007
2622816.500000 1169673.500002 -213.251999
2622841.500000 1169673.500002 -213.247002
2622866.500000 1169673.500002 -213.279755
2622891.500000 1169673.500002 -213.321754
2622916.500000 1169673.500002 -213.376251
2622941.500000 1169673.500002 -213.424744
2622966.500000 1169673.500002 -213.455994
2622991.500000 1169673.500002 -213.538750
2623016.500000 1169673.500002 -213.610756
2623041.500000 1169673.500002 -213.649498
2623066.500000 1169673.500002 -213.696739
2623091.500000 1169673.500002 -213.736748
2623116.500000 1169673.500002 -213.777260
2623141.500000 1169673.500002 -213.786507
2623166.500000 1169673.500002 -213.746994
2623191.500000 1169673.500002 -213.730240
2623216.500000 1169673.500002 -213.731499
2623241.500000 1169673.500002 -213.710754
2623266.500000 1169673.500002 -213.697754
2623291.500000 1169673.500002 -213.696999
2623316.500000 1169673.500002 -213.677246
2623341.500000 1169673.500002 -213.638000
2623366.500000 1169673.500002 -213.636253
2623391.500000 1169673.500002 -213.632500
2623416.500000 1169673.500002 -213.538002
2623441.500000 1169673.500002 -213.377258
2623466.500000 1169673.500002 -213.235252
2623491.500000 1169673.500002 -212.998497
2623516.500000 1169673.500002 -212.486496
2623541.500000 1169673.500002 -210.937256
2623566.500000 1169673.500002 -209.925003
2623591.500000 1169673.500002 -209.876495
2623616.500000 1169673.500002 -209.669754
2623641.500000 1169673.500002 -209.628754
2623666.500000 1169673.500002 -209.910500
2623691.500000 1169673.500002 -210.585754
2623716.500000 1169673.500002 -210.938004
2623741.500000 1169673.500002 -211.018250
2623766.500000 1169673.500002 -211.040001
2623791.500000 1169673.500002 -211.094254
2623816.500000 1169673.500002 -211.139503
2623841.500000 1169673.500002 -211.076004
2623866.500000 1169673.500002 -210.924004
2623891.500000 1169673.500002 -210.986504
2623916.500000 1169673.500002 -211.151749
2623941.500000 1169673.500002 -211.351997
2623966.500000 1169673.500002 -211.674751
2623991.500000 1169673.500002 -211.919998
2624016.500000 1169673.500002 -212.211494
2624041.500000 1169673.500002 -212.307243
2624066.500000 1169673.500002 -212.015999
2624091.500000 1169673.500002 -211.630501
2624116.500000 1169673.500002 -211.380005
2624141.500000 1169673.500002 -211.197258
2624166.500000 1169673.500002 -211.109001
2624191.500000 1169673.500002 -211.228752
2624216.500000 1169673.500002 -211.373505
2624241.500000 1169673.500002 -211.571503
2624266.500000 1169673.500002 -211.838005
2624291.500000 1169673.500002 -211.984001
2624316.500000 1169673.500002 -212.058998
2624341.500000 1169673.500002 -212.131256
2624366.500000 1169673.500002 -212.167999
2624391.500000 1169673.500002 -212.227493
2624416.500000 1169673.500002 -212.225250
2624441.500000 1169673.500002 -212.124504
2624466.500000 1169673.500002 -212.132004
2624491.500000 1169673.500002 -212.122002
2624516.500000 1169673.500002 -212.042244
2624541.500000 1169673.500002 -211.967491
2624566.500000 1169673.500002 -211.928749
2624591.500000 1169673.500002 -211.896500
2624616.500000 1169673.500002 -211.798248
2624641.500000 1169673.500002 -211.718498
2624666.500000 1169673.500002 -211.703247
2624691.500000 1169673.500002 -211.683502
2624716.500000 1169673.500002 -211.661011
2624741.500000 1169673.500002 -211.682251
2624766.500000 1169673.500002 -211.708496
2624791.500000 1169673.500002 -211.722000
2624816.500000 1169673.500002 -211.752747
2624841.500000 1169673.500002 -211.783997
2624866.500000 1169673.500002 -211.746750
2624891.500000 1169673.500002 -211.691002
2624916.500000 1169673.500002 -211.616005
2624941.500000 1169673.500002 -211.553253
2624966.500000 1169673.500002 -211.451996
2624991.500000 1169673.500002 -211.284996
2625016.500000 1169673.500002 -211.090744
2625041.500000 1169673.500002 -210.845749
2625066.500000 1169673.500002 -210.653503
2625091.500000 1169673.500002 -210.483994
2625116.500000 1169673.500002 -210.290993
2625141.500000 1169673.500002 -210.109001
2625166.500000 1169673.500002 -209.922256
2625191.500000 1169673.500002 -209.702011
2625216.500000 1169673.500002 -209.521759
2625241.500000 1169673.500002 -209.334999
2625266.500000 1169673.500002 -209.142494
2625291.500000 1169673.500002 -209.079742
2625316.500000 1169673.500002 -209.055244
2625341.500000 1169673.500002 -208.997498
2625366.500000 1169673.500002 -208.957497
2625391.500000 1169673.500002 -208.972244
2625416.500000 1169673.500002 -209.018494
2625441.500000 1169673.500002 -209.055000
2625466.500000 1169673.500002 -209.075249
2625491.500000 1169673.500002 -209.080742
2625516.500000 1169673.500002 -209.096748
2625541.500000 1169673.500002 -209.108002
2625566.500000 1169673.500002 -209.082748
2625591.500000 1169673.500002 -209.079498
2625616.500000 1169673.500002 -208.998245
2625641.500000 1169673.500002 -208.969246
2625666.500000 1169673.500002 -209.001755
2625691.500000 1169673.500002 -208.876007
2625716.500000 1169673.500002 -208.780251
2625741.500000 1169673.500002 -208.739006
2625766.500000 1169673.500002 -208.677010
2625791.500000 1169673.500002 -208.593498
2625816.500000 1169673.500002 -208.530251
2625841.500000 1169673.500002 -208.478004
2625866.500000 1169673.500002 -208.389503
2625891.500000 1169673.500002 -208.291252
2625916.500000 1169673.500002 -208.198502
2625941.500000 1169673.500002 -208.105499
2625966.500000 1169673.500002 -207.988998
2625991.500000 1169673.500002 -207.858253
2626016.500000 1169673.500002 -207.714005
2626041.500000 1169673.500002 -207.547256
2626066.500000 1169673.500002 -207.414505
2626091.500000 1169673.500002 -207.302002
2626116.500000 1169673.500002 -207.140251
2626141.500000 1169673.500002 -206.965996
2626166.500000 1169673.500002 -206.825493
2626191.500000 1169673.500002 -206.710754
2626216.500000 1169673.500002 -206.618507
2626241.500000 1169673.500002 -206.489998
2626266.500000 1169673.500002 -206.282745
2626291.500000 1169673.500002 -205.969246
2626316.500000 1169673.500002 -205.630249
2626341.500000 1169673.500002 -205.281006
2626366.500000 1169673.500002 -205.029259
2626391.500000 1169673.500002 -204.871750
2626416.500000 1169673.500002 -204.556747
2626441.500000 1169673.500002 -204.313751
2626466.500000 1169673.500002 -204.074249
2626491.500000 1169673.500002 -203.706505
2626516.500000 1169673.500002 -203.394249
2626541.500000 1169673.500002 -203.062744
2626566.500000 1169673.500002 -202.793755
2626591.500000 1169673.500002 -202.674507
2626616.500000 1169673.500002 -202.423752
2626641.500000 1169673.500002 -201.940247
2626666.500000 1169673.500002 -201.457748
2626691.500000 1169673.500002 -200.851753
2626716.500000 1169673.500002 -200.116501
2626741.500000 1169673.500002 -199.667503
2626766.500000 1169673.500002 -199.314003
2626791.500000 1169673.500002 -198.915253
2626816.500000 1169673.500002 -198.698250
2626841.500000 1169673.500002 -198.601997
2626866.500000 1169673.500002 -198.395004
2626891.500000 1169673.500002 -198.133751
2626916.500000 1169673.500002 -197.404747
2626941.500000 1169673.500002 -196.108749
2626966.500000 1169673.500002 -195.076500
2626991.500000 1169673.500002 -194.129242
2627016.500000 1169673.500002 -193.262245
2627041.500000 1169673.500002 -192.361504
2627066.500000 1169673.500002 -191.295998
2627091.500000 1169673.500002 -190.041496
2627116.500000 1169673.500002 -187.801750
2627141.500000 1169673.500002 -184.940254
2627166.500000 1169673.500002 -182.566750
2627191.500000 1169673.500002 -180.364746
2627216.500000 1169673.500002 -176.783501
2627241.500000 1169673.500002 -172.655251
2627266.500000 1169673.500002 -169.051498
2627291.500000 1169673.500002 -165.204750
2627316.500000 1169673.500002 -161.048248
2627341.500000 1169673.500002 -155.935501
2627366.500000 1169673.500002 -149.416008
2627391.500000 1169673.500002 -142.190002
2627416.500000 1169673.500002 -132.580750
2627441.500000 1169673.500002 -119.886246
2627466.500000 1169673.500002 -104.393997
2627491.500000 1169673.500002 -89.131752
2627516.500000 1169673.500002 -74.745750
2627541.500000 1169673.500002 -65.355499
2627566.500000 1169673.500002 -63.772995
2627591.500000 1169673.500002 -63.705246
2627616.500000 1169673.500002 -63.662003
2627641.500000 1169673.500002 -63.650002
2627666.500000 1169673.500002 -63.673500
2627691.500000 1169673.500002 -63.578003
2627716.500000 1169673.500002 -63.426003
2627741.500000 1169673.500002 -63.354248
2627766.500000 1169673.500002 -63.268745
2627791.500000 1169673.500002 -63.191742
2627816.500000 1169673.500002 -63.094246
2627841.500000 1169673.500002 -63.005249
2627866.500000 1169673.500002 -62.904999
2627891.500000 1169673.500002 -62.789253
2627916.500000 1169673.500002 -62.684502
2627941.500000 1169673.500002 -62.574745
2627966.500000 1169673.500002 -62.478493
2627991.500000 1169673.500002 -62.352501
2628016.500000 1169673.500002 -62.204506
2628041.500000 1169673.500002 -62.058754
2628066.500000 1169673.500002 -61.351753
2628091.500000 1169673.500002 -60.604004
2628116.500000 1169673.500002 -60.049004
2628141.500000 1169673.500002 -59.510002
2628166.500000 1169673.500002 -59.131500
2628191.500000 1169673.500002 -58.632744
2628216.500000 1169673.500002 -58.132996
2628241.500000 1169673.500002 -57.406502
2628266.500000 1169673.500002 -56.640495
2628291.500000 1169673.500002 -55.854744
2628316.500000 1169673.500002 -54.992249
2628341.500000 1169673.500002 -54.314499
2628366.500000 1169673.500002 -53.598251
2628391.500000 1169673.500002 -52.555756
2628416.500000 1169673.500002 -51.105255
2628441.500000 1169673.500002 -49.513504
2628466.500000 1169673.500002 -48.175003
2628491.500000 1169673.500002 -46.910248
2628516.500000 1169673.500002 -45.868500
2628541.500000 1169673.500002 -44.045502
2628566.500000 1169673.500002 -41.602249
2628591.500000 1169673.500002 -39.585510
2628616.500000 1169673.500002 -37.983505
2628641.500000 1169673.500002 -37.509491
2628666.500000 1169673.500002 -36.935745
2628691.500000 1169673.500002 -35.899002
2628716.500000 1169673.500002 -35.131760
2628741.500000 1169673.500002 -34.062256
2628766.500000 1169673.500002 -32.600494
2628791.500000 1169673.500002 -29.931747
2628816.500000 1169673.500002 -25.547256
2628841.500000 1169673.500002 -19.709747
2628866.500000 1169673.500002 -12.983002
2628891.500000 1169673.500002 -6.732849
2628916.500000 1169673.500002 -3.879181
2620316.500000 1169698.500002 -3.237305
2620341.500000 1169698.500002 -5.060638
2620366.500000 1169698.500002 -8.043991
2620391.500000 1169698.500002 -10.120758
2620416.500000 1169698.500002 -11.955505
2620441.500000 1169698.500002 -13.706512
2620466.500000 1169698.500002 -14.769516
2620491.500000 1169698.500002 -13.997513
2620516.500000 1169698.500002 -13.126999
2620541.500000 1169698.500002 -12.987488
2620566.500000 1169698.500002 -13.002747
2620591.500000 1169698.500002 -12.974243
2620616.500000 1169698.500002 -12.405243
2620641.500000 1169698.500002 -13.125504
2620666.500000 1169698.500002 -16.026001
2620691.500000 1169698.500002 -19.402252
2620716.500000 1169698.500002 -21.672241
2620741.500000 1169698.500002 -24.358994
2620766.500000 1169698.500002 -31.239517
2620791.500000 1169698.500002 -41.619255
2620816.500000 1169698.500002 -52.488991
2620841.500000 1169698.500002 -63.925240
2620866.500000 1169698.500002 -75.864494
2620891.500000 1169698.500002 -88.973503
2620916.500000 1169698.500002 -102.562752
2620941.500000 1169698.500002 -116.332497
2620966.500000 1169698.500002 -127.894249
2620991.500000 1169698.500002 -136.792747
2621016.500000 1169698.500002 -144.631493
2621041.500000 1169698.500002 -151.099495
2621066.500000 1169698.500002 -156.033501
2621091.500000 1169698.500002 -159.082756
2621116.500000 1169698.500002 -160.842506
2621141.500000 1169698.500002 -162.189003
2621166.500000 1169698.500002 -164.082245
2621191.500000 1169698.500002 -165.913498
2621216.500000 1169698.500002 -168.120499
2621241.500000 1169698.500002 -171.102242
2621266.500000 1169698.500002 -174.883499
2621291.500000 1169698.500002 -178.849251
2621316.500000 1169698.500002 -182.634003
2621341.500000 1169698.500002 -186.663506
2621366.500000 1169698.500002 -193.271248
2621391.500000 1169698.500002 -199.907249
2621416.500000 1169698.500002 -203.022003
2621441.500000 1169698.500002 -204.786751
2621466.500000 1169698.500002 -206.089500
2621491.500000 1169698.500002 -206.936005
2621516.500000 1169698.500002 -207.696251
2621541.500000 1169698.500002 -208.550751
2621566.500000 1169698.500002 -209.333504
2621591.500000 1169698.500002 -210.113503
2621616.500000 1169698.500002 -210.676003
2621641.500000 1169698.500002 -211.001999
2621666.500000 1169698.500002 -211.322998
2621691.500000 1169698.500002 -211.582497
2621716.500000 1169698.500002 -211.763496
2621741.500000 1169698.500002 -211.915001
2621766.500000 1169698.500002 -212.023254
2621791.500000 1169698.500002 -212.088509
2621816.500000 1169698.500002 -212.138000
2621841.500000 1169698.500002 -212.213242
2621866.500000 1169698.500002 -212.304749
2621891.500000 1169698.500002 -212.335754
2621916.500000 1169698.500002 -212.363503
2621941.500000 1169698.500002 -212.371994
2621966.500000 1169698.500002 -212.342247
2621991.500000 1169698.500002 -212.358505
2622016.500000 1169698.500002 -212.387001
2622041.500000 1169698.500002 -212.408997
2622066.500000 1169698.500002 -212.429253
2622091.500000 1169698.500002 -212.451508
2622116.500000 1169698.500002 -212.483253
2622141.500000 1169698.500002 -212.501251
2622166.500000 1169698.500002 -212.533501
2622191.500000 1169698.500002 -212.586502
2622216.500000 1169698.500002 -212.639000
2622241.500000 1169698.500002 -212.678749
2622266.500000 1169698.500002 -212.738754
2622291.500000 1169698.500002 -212.732750
2622316.500000 1169698.500002 -212.743500
2622341.500000 1169698.500002 -212.857002
2622366.500000 1169698.500002 -212.943253
2622391.500000 1169698.500002 -212.984253
2622416.500000 1169698.500002 -213.054756
2622441.500000 1169698.500002 -213.161255
2622466.500000 1169698.500002 -213.201248
2622491.500000 1169698.500002 -213.201752
2622516.500000 1169698.500002 -213.203255
2622541.500000 1169698.500002 -213.197006
2622566.500000 1169698.500002 -213.179008
2622591.500000 1169698.500002 -213.161758
2622616.500000 1169698.500002 -213.188759
2622641.500000 1169698.500002 -213.202255
2622666.500000 1169698.500002 -213.176994
2622691.500000 1169698.500002 -213.170494
2622716.500000 1169698.500002 -213.188995
2622741.500000 1169698.500002 -213.196495
2622766.500000 1169698.500002 -213.226501
2622791.500000 1169698.500002 -213.258247
2622816.500000 1169698.500002 -213.258492
2622841.500000 1169698.500002 -213.257248
2622866.500000 1169698.500002 -213.271004
2622891.500000 1169698.500002 -213.334755
2622916.500000 1169698.500002 -213.375000
2622941.500000 1169698.500002 -213.432747
2622966.500000 1169698.500002 -213.517250
2622991.500000 1169698.500002 -213.576996
2623016.500000 1169698.500002 -213.630249
2623041.500000 1169698.500002 -213.658501
2623066.500000 1169698.500002 -213.689995
2623091.500000 1169698.500002 -213.724503
2623116.500000 1169698.500002 -213.761757
2623141.500000 1169698.500002 -213.765251
2623166.500000 1169698.500002 -213.722992
2623191.500000 1169698.500002 -213.707741
2623216.500000 1169698.500002 -213.710999
2623241.500000 1169698.500002 -213.705002
2623266.500000 1169698.500002 -213.699501
2623291.500000 1169698.500002 -213.672752
2623316.500000 1169698.500002 -213.656258
2623341.500000 1169698.500002 -213.657753
2623366.500000 1169698.500002 -213.655251
2623391.500000 1169698.500002 -213.585999
2623416.500000 1169698.500002 -213.351746
2623441.500000 1169698.500002 -212.988998
2623466.500000 1169698.500002 -212.560005
2623491.500000 1169698.500002 -211.945007
2623516.500000 1169698.500002 -209.668999
2623541.500000 1169698.500002 -206.058502
2623566.500000 1169698.500002 -206.392502
2623591.500000 1169698.500002 -208.339745
2623616.500000 1169698.500002 -207.890251
2623641.500000 1169698.500002 -207.420250
2623666.500000 1169698.500002 -207.409248
2623691.500000 1169698.500002 -207.752754
2623716.500000 1169698.500002 -208.720749
2623741.500000 1169698.500002 -209.338745
2623766.500000 1169698.500002 -209.396248
2623791.500000 1169698.500002 -209.869751
2623816.500000 1169698.500002 -210.237000
2623841.500000 1169698.500002 -210.283249
2623866.500000 1169698.500002 -210.243500
2623891.500000 1169698.500002 -210.399750
2623916.500000 1169698.500002 -210.601250
2623941.500000 1169698.500002 -210.773003
2623966.500000 1169698.500002 -211.160255
2623991.500000 1169698.500002 -211.608253
2624016.500000 1169698.500002 -211.879250
2624041.500000 1169698.500002 -211.797249
2624066.500000 1169698.500002 -211.344749
2624091.500000 1169698.500002 -210.748245
2624116.500000 1169698.500002 -210.346001
2624141.500000 1169698.500002 -210.170250
2624166.500000 1169698.500002 -210.013245
2624191.500000 1169698.500002 -209.820999
2624216.500000 1169698.500002 -209.817245
2624241.500000 1169698.500002 -210.244492
2624266.500000 1169698.500002 -210.824997
2624291.500000 1169698.500002 -211.217247
2624316.500000 1169698.500002 -211.439751
2624341.500000 1169698.500002 -211.618507
2624366.500000 1169698.500002 -211.709503
2624391.500000 1169698.500002 -211.751244
2624416.500000 1169698.500002 -211.787743
2624441.500000 1169698.500002 -211.792252
2624466.500000 1169698.500002 -211.773506
2624491.500000 1169698.500002 -211.721001
2624516.500000 1169698.500002 -211.661743
2624541.500000 1169698.500002 -211.596992
2624566.500000 1169698.500002 -211.556747
2624591.500000 1169698.500002 -211.497749
2624616.500000 1169698.500002 -211.416000
2624641.500000 1169698.500002 -211.344002
2624666.500000 1169698.500002 -211.275246
2624691.500000 1169698.500002 -211.252747
2624716.500000 1169698.500002 -211.246002
2624741.500000 1169698.500002 -211.278252
2624766.500000 1169698.500002 -211.226501
2624791.500000 1169698.500002 -211.245750
2624816.500000 1169698.500002 -211.401749
2624841.500000 1169698.500002 -211.420250
2624866.500000 1169698.500002 -211.371002
2624891.500000 1169698.500002 -211.305000
2624916.500000 1169698.500002 -211.242004
2624941.500000 1169698.500002 -211.146500
2624966.500000 1169698.500002 -211.040741
2624991.500000 1169698.500002 -210.865494
2625016.500000 1169698.500002 -210.590744
2625041.500000 1169698.500002 -210.342003
2625066.500000 1169698.500002 -210.141510
2625091.500000 1169698.500002 -209.966499
2625116.500000 1169698.500002 -209.791496
2625141.500000 1169698.500002 -209.633499
2625166.500000 1169698.500002 -209.450249
2625191.500000 1169698.500002 -209.210007
2625216.500000 1169698.500002 -208.999504
2625241.500000 1169698.500002 -208.811996
2625266.500000 1169698.500002 -208.659248
2625291.500000 1169698.500002 -208.573997
2625316.500000 1169698.500002 -208.522499
2625341.500000 1169698.500002 -208.466751
2625366.500000 1169698.500002 -208.432243
2625391.500000 1169698.500002 -208.439995
2625416.500000 1169698.500002 -208.473503
2625441.500000 1169698.500002 -208.521500
2625466.500000 1169698.500002 -208.535492
2625491.500000 1169698.500002 -208.556488
2625516.500000 1169698.500002 -208.606491
2625541.500000 1169698.500002 -208.600754
2625566.500000 1169698.500002 -208.624001
2625591.500000 1169698.500002 -208.653000
2625616.500000 1169698.500002 -208.563004
2625641.500000 1169698.500002 -208.554253
2625666.500000 1169698.500002 -208.536507
2625691.500000 1169698.500002 -208.441757
2625716.500000 1169698.500002 -208.372002
2625741.500000 1169698.500002 -208.306503
2625766.500000 1169698.500002 -208.260254
2625791.500000 1169698.500002 -208.174744
2625816.500000 1169698.500002 -208.114746
2625841.500000 1169698.500002 -208.053505
2625866.500000 1169698.500002 -207.996758
2625891.500000 1169698.500002 -207.946251
2625916.500000 1169698.500002 -207.824753
2625941.500000 1169698.500002 -207.705002
2625966.500000 1169698.500002 -207.598000
2625991.500000 1169698.500002 -207.470749
2626016.500000 1169698.500002 -207.305000
2626041.500000 1169698.500002 -207.160004
2626066.500000 1169698.500002 -207.033752
2626091.500000 1169698.500002 -206.868752
2626116.500000 1169698.500002 -206.732750
2626141.500000 1169698.500002 -206.589996
2626166.500000 1169698.500002 -206.450493
2626191.500000 1169698.500002 -206.326004
2626216.500000 1169698.500002 -206.237511
2626241.500000 1169698.500002 -206.208000
2626266.500000 1169698.500002 -206.041245
2626291.500000 1169698.500002 -205.705498
2626316.500000 1169698.500002 -205.395752
2626341.500000 1169698.500002 -205.085754
2626366.500000 1169698.500002 -204.836502
2626391.500000 1169698.500002 -204.677246
2626416.500000 1169698.500002 -204.371742
2626441.500000 1169698.500002 -204.083992
2626466.500000 1169698.500002 -203.853493
2626491.500000 1169698.500002 -203.480751
2626516.500000 1169698.500002 -203.130753
2626541.500000 1169698.500002 -202.791245
2626566.500000 1169698.500002 -202.508751
2626591.500000 1169698.500002 -202.390007
2626616.500000 1169698.500002 -201.965004
2626641.500000 1169698.500002 -201.252251
2626666.500000 1169698.500002 -200.641251
2626691.500000 1169698.500002 -200.082001
2626716.500000 1169698.500002 -199.514748
2626741.500000 1169698.500002 -199.085999
2626766.500000 1169698.500002 -198.761002
2626791.500000 1169698.500002 -198.481003
2626816.500000 1169698.500002 -198.395996
2626841.500000 1169698.500002 -198.392990
2626866.500000 1169698.500002 -198.082497
2626891.500000 1169698.500002 -197.602501
2626916.500000 1169698.500002 -196.645248
2626941.500000 1169698.500002 -195.278496
2626966.500000 1169698.500002 -194.210991
2626991.500000 1169698.500002 -193.274239
2627016.500000 1169698.500002 -192.115494
2627041.500000 1169698.500002 -190.845497
2627066.500000 1169698.500002 -189.788994
2627091.500000 1169698.500002 -188.697998
2627116.500000 1169698.500002 -187.086998
2627141.500000 1169698.500002 -184.996498
2627166.500000 1169698.500002 -182.929001
2627191.500000 1169698.500002 -180.670998
2627216.500000 1169698.500002 -176.605995
2627241.500000 1169698.500002 -170.514496
2627266.500000 1169698.500002 -163.776505
2627291.500000 1169698.500002 -159.056259
2627316.500000 1169698.500002 -156.065506
2627341.500000 1169698.500002 -152.374008
2627366.500000 1169698.500002 -147.833511
2627391.500000 1169698.500002 -142.670753
2627416.500000 1169698.500002 -135.794250
2627441.500000 1169698.500002 -125.328003
2627466.500000 1169698.500002 -110.373253
2627491.500000 1169698.500002 -93.341499
2627516.500000 1169698.500002 -76.988747
2627541.500000 1169698.500002 -66.053001
2627566.500000 1169698.500002 -63.164749
2627591.500000 1169698.500002 -63.139244
2627616.500000 1169698.500002 -63.151497
2627641.500000 1169698.500002 -63.177994
2627666.500000 1169698.500002 -63.234993
2627691.500000 1169698.500002 -63.245499
2627716.500000 1169698.500002 -63.180000
2627741.500000 1169698.500002 -63.098000
2627766.500000 1169698.500002 -63.000252
2627791.500000 1169698.500002 -62.919998
2627816.500000 1169698.500002 -62.839745
2627841.500000 1169698.500002 -62.749496
2627866.500000 1169698.500002 -62.671753
2627891.500000 1169698.500002 -62.572006
2627916.500000 1169698.500002 -62.448502
2627941.500000 1169698.500002 -62.317497
2627966.500000 1169698.500002 -62.173744
2627991.500000 1169698.500002 -62.052750
2628016.500000 1169698.500002 -61.817001
2628041.500000 1169698.500002 -61.444504
2628066.500000 1169698.500002 -60.713005
2628091.500000 1169698.500002 -60.071754
2628116.500000 1169698.500002 -59.812500
2628141.500000 1169698.500002 -59.361244
2628166.500000 1169698.500002 -58.757751
2628191.500000 1169698.500002 -58.086250
2628216.500000 1169698.500002 -57.314247
2628241.500000 1169698.500002 -56.489502
2628266.500000 1169698.500002 -55.831245
2628291.500000 1169698.500002 -55.054245
2628316.500000 1169698.500002 -54.163254
2628341.500000 1169698.500002 -53.440254
2628366.500000 1169698.500002 -52.254005
2628391.500000 1169698.500002 -50.922508
2628416.500000 1169698.500002 -49.406258
2628441.500000 1169698.500002 -47.719254
2628466.500000 1169698.500002 -46.795746
2628491.500000 1169698.500002 -45.518242
2628516.500000 1169698.500002 -43.519989
2628541.500000 1169698.500002 -40.811249
2628566.500000 1169698.500002 -36.984253
2628591.500000 1169698.500002 -32.654755
2628616.500000 1169698.500002 -29.900009
2628641.500000 1169698.500002 -30.262497
2628666.500000 1169698.500002 -31.302490
2628691.500000 1169698.500002 -31.737991
2628716.500000 1169698.500002 -31.592010
2628741.500000 1169698.500002 -30.377258
2628766.500000 1169698.500002 -28.529251
2628791.500000 1169698.500002 -26.174011
2628816.500000 1169698.500002 -23.217255
2628841.500000 1169698.500002 -18.301239
2628866.500000 1169698.500002 -11.965561
2628891.500000 1169698.500002 -6.014816
2628916.500000 1169698.500002 -3.131989
2620316.500000 1169723.500002 -2.734528
2620341.500000 1169723.500002 -4.666855
2620366.500000 1169723.500002 -8.640839
2620391.500000 1169723.500002 -11.455994
2620416.500000 1169723.500002 -12.707504
2620441.500000 1169723.500002 -13.522263
2620466.500000 1169723.500002 -13.053757
2620491.500000 1169723.500002 -11.228760
2620516.500000 1169723.500002 -10.567749
2620541.500000 1169723.500002 -10.299744
2620566.500000 1169723.500002 -9.978760
2620591.500000 1169723.500002 -11.195251
2620616.500000 1169723.500002 -12.850235
2620641.500000 1169723.500002 -15.377243
2620666.500000 1169723.500002 -18.295746
2620691.500000 1169723.500002 -20.427490
2620716.500000 1169723.500002 -22.947495
2620741.500000 1169723.500002 -27.352509
2620766.500000 1169723.500002 -36.306519
2620791.500000 1169723.500002 -47.987259
2620816.500000 1169723.500002 -59.072250
2620841.500000 1169723.500002 -70.204498
2620866.500000 1169723.500002 -81.234505
2620891.500000 1169723.500002 -95.412010
2620916.500000 1169723.500002 -112.181007
2620941.500000 1169723.500002 -126.286507
2620966.500000 1169723.500002 -136.386505
2620991.500000 1169723.500002 -143.885750
2621016.500000 1169723.500002 -150.317993
2621041.500000 1169723.500002 -155.732491
2621066.500000 1169723.500002 -159.674744
2621091.500000 1169723.500002 -162.232498
2621116.500000 1169723.500002 -164.109756
2621141.500000 1169723.500002 -165.180756
2621166.500000 1169723.500002 -166.649750
2621191.500000 1169723.500002 -168.805252
2621216.500000 1169723.500002 -171.584503
2621241.500000 1169723.500002 -175.425995
2621266.500000 1169723.500002 -179.678497
2621291.500000 1169723.500002 -183.253502
2621316.500000 1169723.500002 -185.780998
2621341.500000 1169723.500002 -190.195999
2621366.500000 1169723.500002 -196.674248
2621391.500000 1169723.500002 -201.708755
2621416.500000 1169723.500002 -204.201508
2621441.500000 1169723.500002 -205.539749
2621466.500000 1169723.500002 -206.716003
2621491.500000 1169723.500002 -207.511757
2621516.500000 1169723.500002 -208.109001
2621541.500000 1169723.500002 -208.814255
2621566.500000 1169723.500002 -209.630257
2621591.500000 1169723.500002 -210.314507
2621616.500000 1169723.500002 -210.721252
2621641.500000 1169723.500002 -211.005501
2621666.500000 1169723.500002 -211.325752
2621691.500000 1169723.500002 -211.614998
2621716.500000 1169723.500002 -211.791748
2621741.500000 1169723.500002 -211.922997
2621766.500000 1169723.500002 -212.031746
2621791.500000 1169723.500002 -212.089752
2621816.500000 1169723.500002 -212.126747
2621841.500000 1169723.500002 -212.192490
2621866.500000 1169723.500002 -212.289246
2621891.500000 1169723.500002 -212.310753
2621916.500000 1169723.500002 -212.310501
2621941.500000 1169723.500002 -212.283493
2621966.500000 1169723.500002 -212.285744
2621991.500000 1169723.500002 -212.335503
2622016.500000 1169723.500002 -212.342506
2622041.500000 1169723.500002 -212.328003
2622066.500000 1169723.500002 -212.345505
2622091.500000 1169723.500002 -212.390259
2622116.500000 1169723.500002 -212.440010
2622141.500000 1169723.500002 -212.473511
2622166.500000 1169723.500002 -212.496002
2622191.500000 1169723.500002 -212.546249
2622216.500000 1169723.500002 -212.618256
2622241.500000 1169723.500002 -212.690506
2622266.500000 1169723.500002 -212.721504
2622291.500000 1169723.500002 -212.688248
2622316.500000 1169723.500002 -212.763000
2622341.500000 1169723.500002 -212.890259
2622366.500000 1169723.500002 -212.947754
2622391.500000 1169723.500002 -213.024750
2622416.500000 1169723.500002 -213.109253
2622441.500000 1169723.500002 -213.169502
2622466.500000 1169723.500002 -213.182495
2622491.500000 1169723.500002 -213.175743
2622516.500000 1169723.500002 -213.168495
2622541.500000 1169723.500002 -213.128998
2622566.500000 1169723.500002 -213.117256
2622591.500000 1169723.500002 -213.138504
2622616.500000 1169723.500002 -213.140747
2622641.500000 1169723.500002 -213.163002
2622666.500000 1169723.500002 -213.176254
2622691.500000 1169723.500002 -213.164253
2622716.500000 1169723.500002 -213.190498
2622741.500000 1169723.500002 -213.215744
2622766.500000 1169723.500002 -213.218498
2622791.500000 1169723.500002 -213.249001
2622816.500000 1169723.500002 -213.268745
2622841.500000 1169723.500002 -213.266243
2622866.500000 1169723.500002 -213.285004
2622891.500000 1169723.500002 -213.352005
2622916.500000 1169723.500002 -213.399002
2622941.500000 1169723.500002 -213.468506
2622966.500000 1169723.500002 -213.556007
2622991.500000 1169723.500002 -213.596252
2623016.500000 1169723.500002 -213.626503
2623041.500000 1169723.500002 -213.659256
2623066.500000 1169723.500002 -213.677498
2623091.500000 1169723.500002 -213.672501
2623116.500000 1169723.500002 -213.679001
2623141.500000 1169723.500002 -213.674744
2623166.500000 1169723.500002 -213.679489
2623191.500000 1169723.500002 -213.690994
2623216.500000 1169723.500002 -213.682747
2623241.500000 1169723.500002 -213.686501
2623266.500000 1169723.500002 -213.683754
2623291.500000 1169723.500002 -213.671501
2623316.500000 1169723.500002 -213.657753
2623341.500000 1169723.500002 -213.634499
2623366.500000 1169723.500002 -213.587997
2623391.500000 1169723.500002 -213.354248
2623416.500000 1169723.500002 -212.928497
2623441.500000 1169723.500002 -212.114502
2623466.500000 1169723.500002 -209.227005
2623491.500000 1169723.500002 -204.806252
2623516.500000 1169723.500002 -200.211998
2623541.500000 1169723.500002 -198.792000
2623566.500000 1169723.500002 -202.509750
2623591.500000 1169723.500002 -204.779747
2623616.500000 1169723.500002 -204.442497
2623641.500000 1169723.500002 -204.250496
2623666.500000 1169723.500002 -202.826004
2623691.500000 1169723.500002 -202.019257
2623716.500000 1169723.500002 -203.664001
2623741.500000 1169723.500002 -205.439003
2623766.500000 1169723.500002 -206.834503
2623791.500000 1169723.500002 -208.062004
2623816.500000 1169723.500002 -208.745750
2623841.500000 1169723.500002 -209.290749
2623866.500000 1169723.500002 -209.886505
2623891.500000 1169723.500002 -210.180252
2623916.500000 1169723.500002 -209.797997
2623941.500000 1169723.500002 -209.653252
2623966.500000 1169723.500002 -210.171753
2623991.500000 1169723.500002 -210.967751
2624016.500000 1169723.500002 -211.292999
2624041.500000 1169723.500002 -210.924248
2624066.500000 1169723.500002 -210.270500
2624091.500000 1169723.500002 -209.603996
2624116.500000 1169723.500002 -209.220749
2624141.500000 1169723.500002 -209.174751
2624166.500000 1169723.500002 -209.084000
2624191.500000 1169723.500002 -208.823753
2624216.500000 1169723.500002 -208.745750
2624241.500000 1169723.500002 -209.064995
2624266.500000 1169723.500002 -209.727242
2624291.500000 1169723.500002 -210.344749
2624316.500000 1169723.500002 -210.723007
2624341.500000 1169723.500002 -211.047005
2624366.500000 1169723.500002 -211.230507
2624391.500000 1169723.500002 -211.276505
2624416.500000 1169723.500002 -211.327744
2624441.500000 1169723.500002 -211.393250
2624466.500000 1169723.500002 -211.382256
2624491.500000 1169723.500002 -211.301003
2624516.500000 1169723.500002 -211.274002
2624541.500000 1169723.500002 -211.264000
2624566.500000 1169723.500002 -211.232498
2624591.500000 1169723.500002 -211.137245
2624616.500000 1169723.500002 -211.028496
2624641.500000 1169723.500002 -210.945747
2624666.500000 1169723.500002 -210.846245
2624691.500000 1169723.500002 -210.794495
2624716.500000 1169723.500002 -210.761993
2624741.500000 1169723.500002 -210.764252
2624766.500000 1169723.500002 -210.703758
2624791.500000 1169723.500002 -210.748497
2624816.500000 1169723.500002 -210.911240
2624841.500000 1169723.500002 -210.953995
2624866.500000 1169723.500002 -210.902252
2624891.500000 1169723.500002 -210.821999
2624916.500000 1169723.500002 -210.772751
2624941.500000 1169723.500002 -210.664749
2624966.500000 1169723.500002 -210.521240
2624991.500000 1169723.500002 -210.280991
2625016.500000 1169723.500002 -209.913498
2625041.500000 1169723.500002 -209.621758
2625066.500000 1169723.500002 -209.391510
2625091.500000 1169723.500002 -209.238007
2625116.500000 1169723.500002 -209.105751
2625141.500000 1169723.500002 -209.000252
2625166.500000 1169723.500002 -208.923996
2625191.500000 1169723.500002 -208.737999
2625216.500000 1169723.500002 -208.518753
2625241.500000 1169723.500002 -208.284248
2625266.500000 1169723.500002 -208.108002
2625291.500000 1169723.500002 -208.012253
2625316.500000 1169723.500002 -207.956749
2625341.500000 1169723.500002 -207.901245
2625366.500000 1169723.500002 -207.880745
2625391.500000 1169723.500002 -207.897003
2625416.500000 1169723.500002 -207.929260
2625441.500000 1169723.500002 -207.961502
2625466.500000 1169723.500002 -207.986992
2625491.500000 1169723.500002 -208.044243
2625516.500000 1169723.500002 -208.081497
2625541.500000 1169723.500002 -208.074249
2625566.500000 1169723.500002 -208.117249
2625591.500000 1169723.500002 -208.129005
2625616.500000 1169723.500002 -208.082260
2625641.500000 1169723.500002 -208.076759
2625666.500000 1169723.500002 -208.021507
2625691.500000 1169723.500002 -207.959755
2625716.500000 1169723.500002 -207.902756
2625741.500000 1169723.500002 -207.832008
2625766.500000 1169723.500002 -207.772751
2625791.500000 1169723.500002 -207.702995
2625816.500000 1169723.500002 -207.651253
2625841.500000 1169723.500002 -207.578003
2625866.500000 1169723.500002 -207.524498
2625891.500000 1169723.500002 -207.482742
2625916.500000 1169723.500002 -207.400749
2625941.500000 1169723.500002 -207.292007
2625966.500000 1169723.500002 -207.167755
2625991.500000 1169723.500002 -207.028000
2626016.500000 1169723.500002 -206.859245
2626041.500000 1169723.500002 -206.705994
2626066.500000 1169723.500002 -206.555000
2626091.500000 1169723.500002 -206.392006
2626116.500000 1169723.500002 -206.295753
2626141.500000 1169723.500002 -206.171745
2626166.500000 1169723.500002 -206.032494
2626191.500000 1169723.500002 -205.928505
2626216.500000 1169723.500002 -205.819756
2626241.500000 1169723.500002 -205.746246
2626266.500000 1169723.500002 -205.595993
2626291.500000 1169723.500002 -205.349243
2626316.500000 1169723.500002 -205.094749
2626341.500000 1169723.500002 -204.833252
2626366.500000 1169723.500002 -204.554497
2626391.500000 1169723.500002 -204.339996
2626416.500000 1169723.500002 -204.087997
2626441.500000 1169723.500002 -203.744743
2626466.500000 1169723.500002 -203.443741
2626491.500000 1169723.500002 -203.078499
2626516.500000 1169723.500002 -202.668007
2626541.500000 1169723.500002 -202.354507
2626566.500000 1169723.500002 -202.117752
2626591.500000 1169723.500002 -201.892250
2626616.500000 1169723.500002 -201.363258
2626641.500000 1169723.500002 -200.569260
2626666.500000 1169723.500002 -199.907257
2626691.500000 1169723.500002 -199.445755
2626716.500000 1169723.500002 -198.975998
2626741.500000 1169723.500002 -198.575249
2626766.500000 1169723.500002 -198.372749
2626791.500000 1169723.500002 -198.154747
2626816.500000 1169723.500002 -198.100998
2626841.500000 1169723.500002 -197.932495
2626866.500000 1169723.500002 -197.127747
2626891.500000 1169723.500002 -196.350998
2626916.500000 1169723.500002 -195.509499
2626941.500000 1169723.500002 -194.361496
2626966.500000 1169723.500002 -193.475494
2626991.500000 1169723.500002 -192.747749
2627016.500000 1169723.500002 -191.616249
2627041.500000 1169723.500002 -190.211746
2627066.500000 1169723.500002 -188.911743
2627091.500000 1169723.500002 -187.592247
2627116.500000 1169723.500002 -186.221001
2627141.500000 1169723.500002 -184.747253
2627166.500000 1169723.500002 -182.745003
2627191.500000 1169723.500002 -178.442749
2627216.500000 1169723.500002 -173.127243
2627241.500000 1169723.500002 -168.124992
2627266.500000 1169723.500002 -160.944756
2627291.500000 1169723.500002 -154.009506
2627316.500000 1169723.500002 -148.775002
2627341.500000 1169723.500002 -143.578003
2627366.500000 1169723.500002 -138.615250
2627391.500000 1169723.500002 -133.980995
2627416.500000 1169723.500002 -130.669746
2627441.500000 1169723.500002 -123.682755
2627466.500000 1169723.500002 -109.683754
2627491.500000 1169723.500002 -92.675247
2627516.500000 1169723.500002 -74.646744
2627541.500000 1169723.500002 -63.986000
2627566.500000 1169723.500002 -62.521751
2627591.500000 1169723.500002 -62.532249
2627616.500000 1169723.500002 -62.580750
2627641.500000 1169723.500002 -62.646744
2627666.500000 1169723.500002 -62.729996
2627691.500000 1169723.500002 -62.795746
2627716.500000 1169723.500002 -62.810997
2627741.500000 1169723.500002 -62.781502
2627766.500000 1169723.500002 -62.710007
2627791.500000 1169723.500002 -62.637505
2627816.500000 1169723.500002 -62.581001
2627841.500000 1169723.500002 -62.488998
2627866.500000 1169723.500002 -62.417999
2627891.500000 1169723.500002 -62.341003
2627916.500000 1169723.500002 -62.209251
2627941.500000 1169723.500002 -62.080254
2627966.500000 1169723.500002 -61.937752
2627991.500000 1169723.500002 -61.794502
2628016.500000 1169723.500002 -61.525002
2628041.500000 1169723.500002 -61.019753
2628066.500000 1169723.500002 -60.477753
2628091.500000 1169723.500002 -60.084755
2628116.500000 1169723.500002 -59.692757
2628141.500000 1169723.500002 -59.121750
2628166.500000 1169723.500002 -58.450256
2628191.500000 1169723.500002 -57.460503
2628216.500000 1169723.500002 -56.402245
2628241.500000 1169723.500002 -55.745003
2628266.500000 1169723.500002 -55.035500
2628291.500000 1169723.500002 -54.103745
2628316.500000 1169723.500002 -53.258247
2628341.500000 1169723.500002 -52.342499
2628366.500000 1169723.500002 -50.951500
2628391.500000 1169723.500002 -49.577255
2628416.500000 1169723.500002 -47.931007
2628441.500000 1169723.500002 -46.360748
2628466.500000 1169723.500002 -45.340996
2628491.500000 1169723.500002 -43.465744
2628516.500000 1169723.500002 -40.981995
2628541.500000 1169723.500002 -37.035507
2628566.500000 1169723.500002 -30.547012
2628591.500000 1169723.500002 -23.735764
2628616.500000 1169723.500002 -19.703766
2628641.500000 1169723.500002 -19.503250
2628666.500000 1169723.500002 -20.860245
2628691.500000 1169723.500002 -23.120743
2628716.500000 1169723.500002 -25.190491
2628741.500000 1169723.500002 -25.124756
2628766.500000 1169723.500002 -23.543259
2628791.500000 1169723.500002 -20.678497
2628816.500000 1169723.500002 -17.622498
2628841.500000 1169723.500002 -15.645996
2628866.500000 1169723.500002 -11.634125
2628891.500000 1169723.500002 -4.619588
2628916.500000 1169723.500002 -2.420746
2620316.500000 1169748.500002 -2.289825
2620341.500000 1169748.500002 -3.946991
2620366.500000 1169748.500002 -8.676071
2620391.500000 1169748.500002 -12.322739
2620416.500000 1169748.500002 -13.384003
2620441.500000 1169748.500002 -14.076508
2620466.500000 1169748.500002 -13.404007
2620491.500000 1169748.500002 -12.525009
2620516.500000 1169748.500002 -11.783493
2620541.500000 1169748.500002 -9.972244
2620566.500000 1169748.500002 -10.681259
2620591.500000 1169748.500002 -14.116501
2620616.500000 1169748.500002 -16.239990
2620641.500000 1169748.500002 -17.948486
2620666.500000 1169748.500002 -20.233231
2620691.500000 1169748.500002 -22.663483
2620716.500000 1169748.500002 -27.036743
2620741.500000 1169748.500002 -33.571503
2620766.500000 1169748.500002 -42.196503
2620791.500000 1169748.500002 -53.198502
2620816.500000 1169748.500002 -64.842255
2620841.500000 1169748.500002 -76.146507
2620866.500000 1169748.500002 -87.459511
2620891.500000 1169748.500002 -101.136505
2620916.500000 1169748.500002 -117.693497
2620941.500000 1169748.500002 -132.160751
2620966.500000 1169748.500002 -143.033257
2620991.500000 1169748.500002 -150.876251
2621016.500000 1169748.500002 -156.844994
2621041.500000 1169748.500002 -161.846245
2621066.500000 1169748.500002 -164.181000
2621091.500000 1169748.500002 -165.365494
2621116.500000 1169748.500002 -167.159248
2621141.500000 1169748.500002 -168.788750
2621166.500000 1169748.500002 -170.134499
2621191.500000 1169748.500002 -172.290253
2621216.500000 1169748.500002 -176.009750
2621241.500000 1169748.500002 -180.440994
2621266.500000 1169748.500002 -184.150497
2621291.500000 1169748.500002 -186.819756
2621316.500000 1169748.500002 -189.346497
2621341.500000 1169748.500002 -194.087494
2621366.500000 1169748.500002 -199.483498
2621391.500000 1169748.500002 -203.110748
2621416.500000 1169748.500002 -205.064751
2621441.500000 1169748.500002 -206.119003
2621466.500000 1169748.500002 -207.214005
2621491.500000 1169748.500002 -208.064003
2621516.500000 1169748.500002 -208.634003
2621541.500000 1169748.500002 -209.229759
2621566.500000 1169748.500002 -209.967255
2621591.500000 1169748.500002 -210.559502
2621616.500000 1169748.500002 -210.837250
2621641.500000 1169748.500002 -211.050499
2621666.500000 1169748.500002 -211.294006
2621691.500000 1169748.500002 -211.580750
2621716.500000 1169748.500002 -211.838997
2621741.500000 1169748.500002 -211.939751
2621766.500000 1169748.500002 -212.027748
2621791.500000 1169748.500002 -212.121246
2621816.500000 1169748.500002 -212.177498
2621841.500000 1169748.500002 -212.207001
2621866.500000 1169748.500002 -212.245247
2621891.500000 1169748.500002 -212.252998
2621916.500000 1169748.500002 -212.215500
2621941.500000 1169748.500002 -212.201492
2621966.500000 1169748.500002 -212.260994
2621991.500000 1169748.500002 -212.307999
2622016.500000 1169748.500002 -212.296005
2622041.500000 1169748.500002 -212.277008
2622066.500000 1169748.500002 -212.293503
2622091.500000 1169748.500002 -212.358253
2622116.500000 1169748.500002 -212.423759
2622141.500000 1169748.500002 -212.447258
2622166.500000 1169748.500002 -212.478249
2622191.500000 1169748.500002 -212.550247
2622216.500000 1169748.500002 -212.593002
2622241.500000 1169748.500002 -212.609756
2622266.500000 1169748.500002 -212.671249
2622291.500000 1169748.500002 -212.783241
2622316.500000 1169748.500002 -212.830994
2622341.500000 1169748.500002 -212.873253
2622366.500000 1169748.500002 -212.938004
2622391.500000 1169748.500002 -213.023750
2622416.500000 1169748.500002 -213.120003
2622441.500000 1169748.500002 -213.151253
2622466.500000 1169748.500002 -213.143997
2622491.500000 1169748.500002 -213.111740
2622516.500000 1169748.500002 -213.117744
2622541.500000 1169748.500002 -213.115997
2622566.500000 1169748.500002 -213.085503
2622591.500000 1169748.500002 -213.106255
2622616.500000 1169748.500002 -213.125000
2622641.500000 1169748.500002 -213.106499
2622666.500000 1169748.500002 -213.118004
2622691.500000 1169748.500002 -213.176506
